ply
format ascii 1.0
element vertex 1234
property float x
property float y
property float z
property uchar red
property uchar green
property uchar blue
end_header
-6.57239 2.22719 -1.09911 255 192 203
-6.55555 2.22148 -1.09629 255 192 203
-6.52244 2.311 -1.09598 255 192 203
-6.52244 2.311 -1.09598 255 192 203
-6.4673 2.39361 -1.09222 255 192 203
-6.46174 2.39155 -1.09129 255 192 203
-6.42631 2.47971 -1.09097 255 192 203
-6.43921 2.48469 -1.09316 255 192 203
-6.41123 2.5773 -1.09442 255 192 203
-6.41123 2.5773 -1.09442 255 192 203
-6.38419 2.66926 -1.09598 255 192 203
-6.38966 2.67154 -1.09692 255 192 203
-6.37215 2.76804 -1.10036 255 192 203
-6.38483 2.77355 -1.10255 255 192 203
-6.36219 2.86863 -1.10537 255 192 203
-6.373 2.8735 -1.10724 255 192 203
-6.36215 2.97754 -1.11256 255 192 203
-6.37289 2.98257 -1.11444 255 192 203
-7.05235 2.06626 -0.902321 255 192 203
-6.93043 2.03054 -0.886721 255 192 203
-6.80881 2.09727 -0.874778 255 192 203
-6.7538 2.08032 -0.86771 255 192 203
-6.68254 2.16098 -0.862347 255 192 203
-6.61643 2.1396 -0.853817 255 192 203
-6.57463 2.22795 -0.852354 255 192 203
-6.56711 2.2254 -0.851379 255 192 203
-6.50025 2.30314 -0.846748 255 192 203
-6.51148 2.30712 -0.848211 255 192 203
-6.48608 2.40056 -0.849186 255 192 203
-6.47305 2.39574 -0.847479 255 192 203
-6.4357 2.48333 -0.846992 255 192 203
-6.43014 2.48118 -0.846261 255 192 203
-6.41145 2.57738 -0.848454 255 192 203
-6.40408 2.57442 -0.847479 255 192 203
-6.34887 2.75793 -0.849917 255 192 203
-6.36343 2.76426 -0.851867 255 192 203
-6.35005 2.86316 -0.855279 255 192 203
-6.38263 2.87784 -0.859666 255 192 203
-6.35209 2.97283 -0.861129 255 192 203
-6.37187 2.98209 -0.86381 255 192 203
-7.09357 2.07834 -0.646696 255 192 203
-7.01709 2.05593 -0.639723 255 192 203
-6.92714 2.13371 -0.634145 255 192 203
-6.87954 2.11905 -0.629787 255 192 203
-6.80947 2.20202 -0.626127 255 192 203
-6.76018 2.18609 -0.621595 255 192 203
-6.73655 2.28282 -0.622292 255 192 203
-6.68749 2.26619 -0.61776 255 192 203
-6.65936 2.35951 -0.618109 255 192 203
-6.6387 2.35219 -0.616191 255 192 203
-6.58653 2.43774 -0.614448 255 192 203
-6.5884 2.43843 -0.614622 255 192 203
-6.56159 2.53191 -0.61532 255 192 203
-6.56902 2.53478 -0.616017 255 192 203
-6.5182 2.6203 -0.614622 255 192 203
-6.54039 2.62922 -0.616714 255 192 203
-6.51822 2.72529 -0.618109 255 192 203
-6.50719 2.72068 -0.617063 255 192 203
-6.50743 2.82681 -0.620723 255 192 203
-6.49282 2.82046 -0.619329 255 192 203
-6.47147 2.9179 -0.621072 255 192 203
-6.47329 2.91872 -0.621246 255 192 203
-6.4801 3.03274 -0.625953 255 192 203
-6.53244 3.05724 -0.631008 255 192 203
-8.69318 2.547 -0.158119 255 192 203
-9.70833 2.99038 -0.177316 255 0 0
-9.59714 3.10349 -0.17606 255 0 0
-9.62758 3.11334 -0.176618 255 0 0
-9.59075 3.25002 -0.176758 255 0 0
-8.10498 2.87172 -0.150091 255 192 203
-8.91548 3.15889 -0.1651 255 192 203
-8.87051 3.28306 -0.1651 255 192 203
-8.8244 3.40505 -0.1651 255 255 0
-7.51331 0.894578 -1.47076 255 192 203
-7.51331 0.894578 -1.47076 255 192 203
-7.46913 0.993941 -1.46465 255 192 203
-7.44772 0.991092 -1.46045 255 192 203
-7.44093 1.09613 -1.46198 255 192 203
-7.44093 1.09613 -1.46198 255 192 203
-7.40766 1.1958 -1.45854 255 192 203
-7.38634 1.19236 -1.45435 255 192 203
-7.35157 1.29231 -1.45091 255 192 203
-7.3477 1.29163 -1.45015 255 192 203
-7.3251 1.39336 -1.44939 255 192 203
-7.31353 1.39116 -1.4471 255 192 203
-6.86857 1.40492 -1.36276 255 192 203
-6.70508 1.37148 -1.33032 255 192 203
-6.62608 1.45078 -1.31849 255 192 203
-6.63183 1.45204 -1.31964 255 192 203
-6.64915 1.55342 -1.32727 255 192 203
-6.19252 0.737318 -0.987727 255 192 203
-6.20625 0.738953 -0.989917 255 192 203
-6.20135 0.825234 -0.990856 255 192 203
-6.20722 0.826015 -0.991795 255 192 203
-6.21854 0.916056 -0.995549 255 192 203
-6.21658 0.915768 -0.995236 255 192 203
-6.26187 1.01084 -1.00462 255 192 203
-6.27747 1.01336 -1.00713 255 192 203
-6.28217 1.10432 -1.01025 255 192 203
-6.27438 1.10296 -1.009 255 192 203
-6.31271 1.20079 -1.01776 255 192 203
-6.28554 1.19562 -1.01338 255 192 203
-6.342 1.29721 -1.02527 255 192 203
-6.39232 1.30751 -1.03341 255 192 203
-8.57723 2.00388 -1.39508 255 192 203
-8.53154 2.11766 -1.39227 255 192 203
-8.51236 2.11291 -1.38914 255 192 203
-8.45529 2.22451 -1.38476 255 192 203
-8.43427 2.21899 -1.38132 255 192 203
-8.39105 2.33335 -1.37944 255 192 203
-7.30815 2.03222 -1.20142 255 192 203
-6.36293 0.757608 -0.786788 255 192 203
-6.34914 0.755965 -0.785082 255 192 203
-6.37943 0.848932 -0.790201 255 192 203
-6.37156 0.847884 -0.789226 255 192 203
-6.35321 0.935894 -0.788495 255 192 203
-6.36892 0.938209 -0.790445 255 192 203
-6.36714 1.02783 -0.791907 255 192 203
-6.39458 1.03226 -0.795319 255 192 203
-6.38931 1.12316 -0.796538 255 192 203
-6.40495 1.12591 -0.798488 255 192 203
-6.35351 1.20855 -0.794101 255 192 203
-6.34013 1.29683 -0.794588 255 192 203
-6.37514 1.30399 -0.798975 255 192 203
-8.28836 2.0573 -1.04856 255 192 203
-7.96702 2.09605 -1.01152 255 192 203
-7.69825 2.02534 -0.977392 255 192 203
-7.47032 2.07732 -0.952043 255 192 203
-7.25421 2.01722 -0.924501 255 192 203
-6.40103 1.12522 -0.568604 255 192 203
-6.45205 1.13419 -0.573136 255 192 203
-6.49822 1.23608 -0.578714 255 192 203
-6.51387 1.23905 -0.580109 255 192 203
-6.55083 1.33993 -0.584989 255 192 203
-6.55668 1.34112 -0.585512 255 192 203
-9.10861 1.99433 -0.815778 255 192 203
-8.83542 2.0642 -0.793814 255 192 203
-8.57156 2.00255 -0.770108 255 192 203
-8.34976 2.07255 -0.752677 255 192 203
-8.15639 2.02455 -0.735246 255 192 203
-7.95683 2.21261 -0.144157 255 192 203
-7.84894 2.18261 -0.142202 255 192 203
-7.80874 -0.373715 -1.5196 255 192 203
-7.78913 -0.372776 -1.51579 255 192 203
-7.78568 -0.26508 -1.51426 255 192 203
-7.7798 -0.264879 -1.51312 255 192 203
-7.76897 -0.157311 -1.51044 255 192 203
-7.76308 -0.157191 -1.5093 255 192 203
-6.53357 -0.042193 -1.27003 255 192 203
-6.49425 0.049873 -1.26239 255 192 203
-6.75596 0.145056 -1.31353 255 192 203
-6.80111 0.146026 -1.32231 255 192 203
-6.80434 0.239991 -1.32345 255 192 203
-6.77294 0.238883 -1.31735 255 192 203
-7.65729 0.375844 -1.49022 255 192 203
-7.64356 0.37517 -1.48755 255 192 203
-7.61799 0.480618 -1.48373 255 192 203
-7.62387 0.480989 -1.48488 255 192 203
-7.60672 0.585305 -1.48297 255 192 203
-7.59889 0.584703 -1.48144 255 192 203
-7.5939 0.691099 -1.4822 255 192 203
-7.56652 0.688608 -1.47686 255 192 203
-7.55241 0.792457 -1.4761 255 192 203
-7.53288 0.790408 -1.47228 255 192 203
-9.3881 -0.4493 -1.48863 255 192 203
-9.38415 -0.449111 -1.48801 255 192 203
-9.37761 -0.31928 -1.48613 255 192 203
-9.36181 -0.318742 -1.48362 255 192 203
-9.25669 -0.187435 -1.46642 255 192 203
-7.17507 -0.145285 -1.13665 255 192 203
-6.24398 0.047951 -0.988979 255 192 203
-6.25458 0.134291 -0.990856 255 192 203
-6.24273 0.134037 -0.988979 255 192 203
-6.24818 0.220375 -0.99023 255 192 203
-6.24423 0.220236 -0.989604 255 192 203
-6.22482 0.305534 -0.987101 255 192 203
-6.2189 0.305243 -0.986163 255 192 203
-6.21995 0.392416 -0.987101 255 192 203
-6.2298 0.393038 -0.988666 255 192 203
-6.21592 0.478289 -0.987414 255 192 203
-6.21592 0.478289 -0.987414 255 192 203
-6.20863 0.56503 -0.987414 255 192 203
-6.22044 0.566104 -0.989292 255 192 203
-6.21793 0.652434 -0.99023 255 192 203
-6.20614 0.651197 -0.988353 255 192 203
-9.07654 -0.309029 -1.1151 255 192 203
-9.00253 -0.182289 -1.1056 255 192 203
-6.38784 0.049056 -0.784351 255 192 203
-6.38656 0.137125 -0.784351 255 192 203
-6.3032 0.135335 -0.774114 255 192 203
-6.36224 0.224398 -0.78167 255 192 203
-6.35061 0.311707 -0.780695 255 192 203
-6.34466 0.311416 -0.779964 255 192 203
-6.33177 0.39947 -0.778989 255 192 203
-6.32582 0.399095 -0.778258 255 192 203
-6.35733 0.489169 -0.782889 255 192 203
-6.37514 0.49054 -0.785082 255 192 203
-6.35581 0.578424 -0.78362 255 192 203
-6.35581 0.578424 -0.78362 255 192 203
-6.36105 0.66745 -0.785326 255 192 203
-6.35907 0.667243 -0.785082 255 192 203
-6.51498 -0.042072 -0.569999 255 192 203
-6.48304 0.049787 -0.56721 255 192 203
-6.4419 0.138313 -0.563723 255 192 203
-6.40206 0.137458 -0.560237 255 192 203
-6.37766 0.224942 -0.55832 255 192 203
-6.36372 0.22445 -0.5571 255 192 203
-6.36201 0.312267 -0.557274 255 192 203
-6.364 0.312365 -0.557448 255 192 203
-6.37294 0.402068 -0.558668 255 192 203
-6.35107 0.400688 -0.556751 255 192 203
-6.34096 0.487911 -0.556402 255 192 203
-6.335 0.487452 -0.555879 255 192 203
-6.31171 0.57441 -0.554485 255 192 203
-6.32758 0.575855 -0.555879 255 192 203
-6.38047 0.669488 -0.561283 255 192 203
-6.38047 0.669488 -0.561283 255 192 203
-6.86137 0.147319 -0.119793 255 192 203
-6.77875 0.239088 -0.118397 255 192 203
-6.73479 0.237538 -0.117629 255 192 203
-6.75284 0.33145 -0.118013 255 192 203
-6.75284 0.33145 -0.118013 255 192 203
-6.74955 0.425828 -0.118048 255 192 203
-6.70964 0.42331 -0.11735 255 192 203
-4.91962 -0.857727 -1.33809 255 192 203
-4.88915 -0.78224 -1.32671 255 192 203
-4.85291 -0.776442 -1.31687 255 192 203
-4.83448 -0.705274 -1.30911 255 192 203
-4.80198 -0.700533 -1.30031 255 192 203
-4.79586 -0.632239 -1.29617 255 192 203
-4.79203 -0.631734 -1.29513 255 192 203
-4.79645 -0.565151 -1.2941 255 192 203
-4.80029 -0.565603 -1.29513 255 192 203
-4.80579 -0.498326 -1.29461 255 192 203
-4.80771 -0.498525 -1.29513 255 192 203
-4.86608 -0.436855 -1.30911 255 192 203
-4.91444 -0.927705 0.087297 255 192 203
-4.8757 -0.850068 0.086389 255 192 203
-4.83039 -0.842169 0.085587 255 192 203
-4.81008 -0.769589 0.085028 255 192 203
-4.78441 -0.765482 0.084574 255 192 203
-4.78264 -0.697712 0.084365 255 192 203
-4.78264 -0.697712 0.084365 255 192 203
-4.78189 -0.630397 0.08419 255 192 203
-4.76801 -0.628568 0.083946 255 192 203
-4.78417 -0.563704 0.084086 255 192 203
-4.79609 -0.565108 0.084295 255 192 203
-4.8234 -0.500152 0.084644 255 192 203
-4.82738 -0.500564 0.084714 255 192 203
-4.85175 -0.435567 0.085028 255 192 203
-4.88959 -0.438965 0.085691 255 192 203
-4.95506 -0.375182 0.086738 255 192 203
-5.59749 -1.13679 -1.31866 255 192 203
-4.96263 -0.865226 -1.163 255 192 203
-4.91272 -0.856523 -1.1513 255 192 203
-4.86262 -0.777995 -1.1369 255 192 203
-4.83376 -0.773377 -1.13015 255 192 203
-4.82275 -0.703563 -1.12521 255 192 203
-4.8054 -0.701031 -1.12116 255 192 203
-4.81074 -0.6342 -1.12026 255 192 203
-4.79335 -0.631908 -1.11621 255 192 203
-4.79193 -0.564618 -1.11396 255 192 203
-4.79387 -0.564846 -1.11441 255 192 203
-4.81873 -0.499668 -1.11846 255 192 203
-4.82649 -0.500471 -1.12026 255 192 203
-4.82904 -0.433529 -1.11936 255 192 203
-4.82904 -0.433529 -1.11936 255 192 203
-4.87543 -0.369153 -1.1288 255 192 203
-4.90264 -0.371213 -1.1351 255 192 203
-5.00459 -0.308724 -1.1576 255 192 203
-4.96733 -0.937689 0.264925 255 192 203
-4.89472 -0.923982 0.261052 255 192 203
-4.86582 -0.848347 0.258854 255 192 203
-4.82647 -0.841486 0.25676 255 192 203
-4.82197 -0.771491 0.255923 255 192 203
-4.80028 -0.768021 0.254771 255 192 203
-4.79065 -0.69888 0.253725 255 192 203
-4.78472 -0.698015 0.253411 255 192 203
-4.78993 -0.631456 0.253201 255 192 203
-4.79587 -0.632239 0.253515 255 192 203
-4.79421 -0.564887 0.252992 255 192 203
-4.80215 -0.565822 0.253411 255 192 203
-4.8215 -0.499954 0.254039 255 192 203
-4.85328 -0.50325 0.255713 255 192 203
-4.88562 -0.438609 0.257074 255 192 203
-4.91546 -0.441287 0.258644 255 192 203
-4.96894 -0.376233 0.261156 255 192 203
-5.54782 -1.20759 -1.10364 255 192 203
-4.96091 -0.864926 -0.97885 255 192 203
-4.90096 -0.854472 -0.96702 255 192 203
-4.88527 -0.781619 -0.961677 255 192 203
-4.85231 -0.776346 -0.95519 255 192 203
-4.82759 -0.704269 -0.948321 255 192 203
-4.80622 -0.701151 -0.944123 255 192 203
-4.8018 -0.633022 -0.941452 255 192 203
-4.8057 -0.633535 -0.942215 255 192 203
-4.81592 -0.567445 -0.942596 255 192 203
-4.80422 -0.566067 -0.940307 255 192 203
-4.81361 -0.499137 -0.940688 255 192 203
-4.83314 -0.501162 -0.944504 255 192 203
-4.86306 -0.436583 -0.949084 255 192 203
-4.88652 -0.438689 -0.953663 255 192 203
-4.91175 -0.371902 -0.95748 255 192 203
-4.94698 -0.374571 -0.964349 255 192 203
-5.01052 -0.30909 -0.975797 255 192 203
-7.8146 -0.482069 -1.52189 255 192 203
-4.70169 -0.954861 0.419742 255 192 203
-4.70071 -0.887358 0.418522 255 192 203
-4.66742 -0.881075 0.415559 255 192 203
-4.63216 -0.807609 0.411375 255 192 203
-4.71972 -0.755131 0.418173 255 192 203
-4.78882 -0.698614 0.423403 255 192 203
-4.74742 -0.692574 0.419742 255 192 203
-4.61825 -0.608824 0.40754 255 192 203
-4.63405 -0.610907 0.408935 255 192 203
-4.67369 -0.550687 0.411724 255 192 203
-4.68556 -0.552086 0.41277 255 192 203
-4.70669 -0.48805 0.41399 255 192 203
-4.84739 -0.50264 0.426366 255 192 203
-4.88958 -0.438964 0.429504 255 192 203
-4.93523 -0.443062 0.433513 255 192 203
-5.02238 -0.38028 0.440659 255 192 203
-5.69403 -1.23942 -0.922963 255 192 203
-5.69916 -1.15744 -0.921086 255 192 203
-5.71852 -1.16137 -0.924215 255 192 203
-5.70488 -1.07692 -0.919522 255 192 203
-4.93122 -0.859748 -0.79281 255 192 203
-4.86311 -0.847873 -0.781859 255 192 203
-4.84521 -0.77521 -0.777166 255 192 203
-4.82376 -0.771777 -0.773725 255 192 203
-4.80853 -0.701488 -0.769658 255 192 203
-4.80266 -0.700633 -0.768719 255 192 203
-4.79033 -0.631509 -0.765277 255 192 203
-4.78053 -0.630218 -0.763713 255 192 203
-4.78681 -0.564014 -0.7634 255 192 203
-4.79858 -0.565401 -0.765277 255 192 203
-4.81386 -0.499163 -0.766529 255 192 203
-4.81583 -0.499366 -0.766842 255 192 203
-4.83996 -0.43451 -0.769658 255 192 203
-4.87144 -0.437336 -0.774663 255 192 203
-4.91647 -0.37226 -0.780921 255 192 203
-4.9598 -0.375541 -0.787804 255 192 203
-5.03948 -0.310877 -0.799693 255 192 203
-9.40467 -0.580157 -1.49239 255 192 203
-4.72144 -0.958871 0.591554 255 192 203
-4.69129 -0.885581 0.586192 255 192 203
-4.64448 -0.876744 0.580342 255 192 203
-4.66604 -0.813516 0.58156 255 192 203
-4.78476 -0.765537 0.594966 255 192 203
-4.78504 -0.698061 0.593747 255 192 203
-4.64463 -0.612302 0.575223 255 192 203
-4.64857 -0.612821 0.575711 255 192 203
-4.66446 -0.549599 0.576686 255 192 203
-4.68812 -0.552386 0.579611 255 192 203
-4.74079 -0.491585 0.585217 255 192 203
-4.87505 -0.505508 0.601791 255 192 203
-4.88947 -0.438954 0.602766 255 192 203
-4.94285 -0.443747 0.609347 255 192 203
-4.97804 -0.93971 -0.622021 255 192 203
-4.9144 -0.856817 -0.612515 255 192 203
-4.87529 -0.849998 -0.607641 255 192 203
-4.8514 -0.7762 -0.603253 255 192 203
-4.81612 -0.770555 -0.598866 255 192 203
-4.79682 -0.69978 -0.59521 255 192 203
-4.78896 -0.698634 -0.594235 255 192 203
-4.79224 -0.631761 -0.593504 255 192 203
-4.79814 -0.632539 -0.594235 255 192 203
-4.78866 -0.564233 -0.592041 255 192 203
-4.79655 -0.565162 -0.593016 255 192 203
-4.81779 -0.49957 -0.594722 255 192 203
-4.82964 -0.500799 -0.596185 255 192 203
-4.85783 -0.436114 -0.598866 255 192 203
-4.87761 -0.437889 -0.601303 255 192 203
-4.91492 -0.372142 -0.605203 255 192 203
-4.98222 -0.377238 -0.61349 255 192 203
-4.68865 -0.952212 0.757769 255 192 203
-4.67221 -0.881979 0.753076 255 192 203
-4.62369 -0.872819 0.745254 255 192 203
-4.64321 -0.809534 0.746505 255 192 203
-4.77694 -0.764287 0.766216 255 192 203
-4.77304 -0.763663 0.76559 255 192 203
-4.75966 -0.694359 0.761836 255 192 203
-4.61798 -0.608789 0.737745 255 192 203
-4.62778 -0.61008 0.739309 255 192 203
-4.6691 -0.550145 0.744628 255 192 203
-4.66713 -0.549914 0.744315 255 192 203
-4.80993 -0.498755 0.765903 255 192 203
-4.85512 -0.503441 0.773099 255 192 203
-4.89505 -0.439455 0.778418 255 192 203
-4.96588 -0.445814 0.789681 255 192 203
-4.96501 -0.937251 -0.442054 255 192 203
-4.90303 -0.854833 -0.43543 255 192 203
-4.84611 -0.844909 -0.430375 255 192 203
-4.83185 -0.773073 -0.428109 255 192 203
-4.80628 -0.768981 -0.425843 255 192 203
-4.80657 -0.701202 -0.424971 255 192 203
-4.78488 -0.698039 -0.423054 255 192 203
-4.79405 -0.632 -0.423054 255 192 203
-4.78812 -0.631219 -0.422531 255 192 203
-4.80429 -0.566074 -0.423228 255 192 203
-4.8122 -0.567007 -0.423926 255 192 203
-4.81767 -0.499557 -0.423751 255 192 203
-4.82559 -0.500379 -0.424448 255 192 203
-4.86577 -0.436827 -0.427412 255 192 203
-4.88958 -0.438964 -0.429504 255 192 203
-4.95285 -0.375015 -0.434559 255 192 203
-5.00053 -0.378625 -0.438742 255 192 203
-4.70028 -0.954574 0.932293 255 192 203
-4.67719 -0.949885 0.927713 255 192 203
-4.65319 -0.878388 0.920463 255 192 203
-4.63968 -0.875839 0.917791 255 192 203
-4.64372 -0.809624 0.916265 255 192 203
-4.68821 -0.81738 0.925042 255 192 203
-4.71661 -0.754634 0.928477 255 192 203
-4.72824 -0.756495 0.930766 255 192 203
-4.76348 -0.694916 0.935727 255 192 203
-4.62273 -0.609415 0.906343 255 192 203
-4.62468 -0.609672 0.906724 255 192 203
-4.65409 -0.548377 0.910922 255 192 203
-4.66969 -0.550215 0.913975 255 192 203
-4.84486 -0.502377 0.946794 255 192 203
-4.87415 -0.505414 0.952519 255 192 203
-4.89239 -0.439216 0.954808 255 192 203
-4.99798 -0.448696 0.975416 255 192 203
-4.93004 -0.93065 -0.262936 255 192 203
-4.8855 -0.851777 -0.2599 255 192 203
-4.85205 -0.845945 -0.258121 255 192 203
-4.83578 -0.7737 -0.256656 255 192 203
-4.81014 -0.769598 -0.255295 255 192 203
-4.80646 -0.701186 -0.254562 255 192 203
-4.7946 -0.699456 -0.253934 255 192 203
-4.81567 -0.63485 -0.254562 255 192 203
-4.78993 -0.631456 -0.253201 255 192 203
-4.80809 -0.566523 -0.253725 255 192 203
-4.80413 -0.566056 -0.253515 255 192 203
-4.83342 -0.50119 -0.254667 255 192 203
-4.85527 -0.503456 -0.255818 255 192 203
-4.8717 -0.437358 -0.256342 255 192 203
-4.90352 -0.440216 -0.258016 255 192 203
-4.96296 -0.37578 -0.260842 255 192 203
-4.698 -0.95411 1.10676 255 192 203
-4.66744 -0.947905 1.09956 255 192 203
-4.64943 -0.877678 1.09236 255 192 203
-4.61879 -0.871894 1.08516 255 192 203
-4.64011 -0.808994 1.08741 255 192 203
-4.67466 -0.815019 1.09551 255 192 203
-4.77026 -0.763218 1.11531 255 192 203
-4.76064 -0.761678 1.11306 255 192 203
-4.60292 -0.671493 1.07392 255 192 203
-4.6272 -0.610004 1.07752 255 192 203
-4.63492 -0.611023 1.07931 255 192 203
-4.65452 -0.548428 1.08202 255 192 203
-4.67581 -0.550936 1.08696 255 192 203
-4.82649 -0.500471 1.12026 255 192 203
-4.88657 -0.506702 1.1342 255 192 203
-4.94356 -0.44381 1.1459 255 192 203
-4.97732 -0.939575 -0.088414 255 192 203
-4.91444 -0.927705 -0.087297 255 192 203
-4.85994 -0.847321 -0.08611 255 192 203
-4.83827 -0.843543 -0.085726 255 192 203
-4.83378 -0.77338 -0.085447 255 192 203
-4.81206 -0.769905 -0.085063 255 192 203
-4.79847 -0.700021 -0.084644 255 192 203
-4.79451 -0.699444 -0.084574 255 192 203
-4.8037 -0.633272 -0.084574 255 192 203
-4.79775 -0.632488 -0.08447 255 192 203
-4.81793 -0.567682 -0.084679 255 192 203
-4.81198 -0.56698 -0.084574 255 192 203
-4.82937 -0.50077 -0.084749 255 192 203
-4.84727 -0.502627 -0.085063 255 192 203
-4.87764 -0.437892 -0.085482 255 192 203
-4.92743 -0.442362 -0.086355 255 192 203
-4.97699 -0.376843 -0.087122 255 192 203
-5.31145 -1.54815 -1.27727 255 192 203
-5.46377 -1.51113 -1.30877 255 192 203
-5.40515 -1.41398 -1.28987 255 192 203
-5.39007 -1.41004 -1.28627 255 192 203
-5.45062 -1.34586 -1.29617 255 192 203
-5.42035 -1.33839 -1.28897 255 192 203
-5.52203 -1.28197 -1.30877 255 192 203
-5.52203 -1.28197 -1.30877 255 192 203
-5.29635 -1.54375 -1.07235 255 192 203
-5.31524 -1.47005 -1.07196 255 192 203
-5.32849 -1.47371 -1.07464 255 192 203
-5.35994 -1.40216 -1.07693 255 192 203
-5.42072 -1.41805 -1.08914 255 192 203
-5.41089 -1.49651 -0.889174 255 192 203
-5.44706 -1.50651 -0.895118 255 192 203
-5.58605 -1.46131 -0.914516 255 192 203
-5.53445 -1.44781 -0.906068 255 192 203
-5.59608 -1.38178 -0.912952 255 192 203
-5.53471 -1.36663 -0.90294 255 192 203
-5.66486 -1.31513 -0.921086 255 192 203
-5.64369 -1.31021 -0.917645 255 192 203
-4.52942 -1.3202 1.08921 255 192 203
-4.53316 -1.3213 1.09011 255 192 203
-4.5641 -1.26231 1.09326 255 192 203
-4.64486 -1.28464 1.11261 255 192 203
-4.62841 -1.21079 1.10451 255 192 203
-0.358341 -0.582475 -0.183244 160 32 240
-0.355304 -0.577539 -0.181691 160 32 240
-0.337988 -0.549392 -0.148918 160 32 240
-0.339009 -0.551052 -0.149367 160 32 240
-0.247522 -0.610491 -0.176515 160 32 240
-0.251413 -0.59634 -0.173409 160 32 240
-0.249162 -0.590999 -0.171856 160 32 240
-0.252637 -0.57689 -0.16875 160 32 240
-0.254187 -0.580429 -0.169785 160 32 240
-0.270957 -0.596216 -0.175479 160 32 240
-0.259767 -0.571593 -0.168232 160 32 240
-0.26937 -0.571405 -0.169268 160 32 240
-0.274313 -0.58189 -0.172373 160 32 240
-0.338309 -0.668868 -0.200844 160 32 240
-0.317048 -0.605942 -0.183244 160 32 240
-0.288389 -0.551168 -0.166679 160 32 240
-0.212048 -0.567752 -0.13992 160 32 240
-0.228339 -0.586566 -0.145318 160 32 240
-0.224097 -0.57567 -0.142619 160 32 240
-0.237971 -0.586933 -0.146218 160 32 240
-0.245293 -0.604992 -0.150717 160 32 240
-0.25891 -0.614123 -0.153867 160 32 240
-0.257396 -0.610531 -0.152967 160 32 240
-0.261881 -0.597999 -0.150717 160 32 240
-0.259536 -0.592644 -0.149367 160 32 240
-0.26607 -0.585461 -0.148468 160 32 240
-0.265263 -0.583687 -0.148018 160 32 240
-0.289175 -0.613417 -0.156566 160 32 240
-0.263866 -0.521687 -0.134971 160 32 240
-0.262107 -0.518209 -0.134071 160 32 240
-0.281875 -0.53872 -0.140369 160 32 240
-0.245225 -0.656582 -0.136238 160 32 240
-0.241103 -0.645547 -0.133948 160 32 240
-0.247844 -0.636673 -0.132803 160 32 240
-0.245708 -0.631184 -0.131658 160 32 240
-0.253759 -0.625873 -0.131277 160 32 240
-0.245645 -0.60586 -0.127079 160 32 240
-0.256263 -0.607842 -0.128224 160 32 240
-0.256263 -0.607842 -0.128224 160 32 240
-0.263831 -0.602453 -0.127842 160 32 240
-0.260681 -0.595259 -0.126316 160 32 240
-0.26399 -0.580885 -0.124026 160 32 240
-0.264802 -0.582672 -0.124407 160 32 240
-0.272075 -0.577142 -0.124026 160 32 240
-0.272075 -0.577142 -0.124026 160 32 240
-0.268902 -0.550356 -0.119065 160 32 240
-0.253389 -0.518604 -0.112196 160 32 240
-0.244666 -0.655085 -0.110756 160 32 240
-0.237063 -0.634729 -0.107314 160 32 240
-0.242209 -0.622196 -0.10575 160 32 240
-0.242209 -0.622196 -0.10575 160 32 240
-0.250872 -0.618754 -0.10575 160 32 240
-0.23677 -0.583972 -0.099805 160 32 240
-0.250938 -0.595213 -0.102308 160 32 240
-0.245567 -0.582472 -0.100118 160 32 240
-0.256744 -0.586269 -0.10137 160 32 240
-0.252782 -0.577221 -0.099805 160 32 240
-0.268889 -0.591665 -0.102934 160 32 240
-0.25663 -0.564689 -0.098241 160 32 240
-0.265331 -0.562838 -0.098554 160 32 240
-0.297744 -1.11822 -0.310065 160 32 240
-0.313522 -1.1139 -0.310065 160 32 240
-0.313522 -1.1139 -0.310065 160 32 240
-0.353308 -1.13434 -0.318347 160 32 240
-0.371314 -1.13671 -0.320418 160 32 240
-0.241323 -0.674731 -0.139291 160 32 240
-0.240152 -0.671457 -0.112946 160 32 240
-0.032731 -0.630867 -0.169268 160 32 240
-0.033131 -0.638584 -0.171338 160 32 240
-0.042044 -0.638059 -0.171338 160 32 240
-0.041282 -0.626493 -0.168232 160 32 240
-0.049102 -0.614301 -0.165127 160 32 240
-0.050949 -0.63741 -0.171338 160 32 240
-0.056845 -0.605872 -0.163056 160 32 240
-0.057567 -0.613566 -0.165127 160 32 240
-0.065914 -0.612725 -0.165127 160 32 240
-0.067567 -0.628092 -0.169268 160 32 240
-0.079358 -0.650072 -0.175479 160 32 240
-0.069994 -0.573367 -0.154774 160 32 240
-0.077893 -0.572348 -0.154774 160 32 240
-0.090919 -0.668058 -0.180656 160 32 240
0.087577 -0.610006 -0.165127 160 32 240
0.086479 -0.602357 -0.163056 160 32 240
0.079158 -0.611156 -0.165127 160 32 240
0.0241 -0.530712 -0.14235 160 32 240
0.02445 -0.538432 -0.144421 160 32 240
0.017268 -0.546441 -0.146492 160 32 240
0.136211 -0.632674 -0.173409 160 32 240
0.137837 -0.640228 -0.175479 160 32 240
0.125953 -0.626916 -0.171338 160 32 240
0.128997 -0.642068 -0.175479 160 32 240
0.111627 -0.598207 -0.163056 160 32 240
0.123676 -0.662776 -0.180656 160 32 240
0.111788 -0.649207 -0.176515 160 32 240
0.109165 -0.633977 -0.172373 160 32 240
0.100303 -0.635439 -0.172373 160 32 240
0.090062 -0.570559 -0.154774 160 32 240
0.530201 -1.02857 -0.310065 160 32 240
0.52312 -1.01483 -0.305924 160 32 240
0.507355 -1.01849 -0.304889 160 32 240
0.507355 -1.01849 -0.304889 160 32 240
0.50062 -1.04114 -0.309548 160 32 240
0.497271 -1.03418 -0.307477 160 32 240
0.477907 -1.0305 -0.304371 160 32 240
0.485222 -1.04628 -0.30903 160 32 240
0.467413 -1.04589 -0.306959 160 32 240
0.472143 -1.05648 -0.310065 160 32 240
0.454476 -1.05579 -0.307995 160 32 240
0.449893 -1.04514 -0.304889 160 32 240
0.43544 -1.05125 -0.304889 160 32 240
0.442833 -1.06909 -0.310065 160 32 240
0.427863 -1.07517 -0.310065 160 32 240
0.425006 -1.06799 -0.307995 160 32 240
0.408862 -1.07014 -0.306959 160 32 240
0.408862 -1.07014 -0.306959 160 32 240
0.611549 -0.581963 -0.164096 160 32 240
2.12931 -0.198655 -0.573025 160 32 240
2.13316 -0.199014 -0.574061 160 32 240
2.12249 -0.227953 -0.57199 160 32 240
2.13402 -0.229191 -0.575096 160 32 240
2.12298 -0.257661 -0.573025 160 32 240
2.12298 -0.257661 -0.573025 160 32 240
2.11918 -0.287277 -0.573025 160 32 240
2.13066 -0.288834 -0.576131 160 32 240
2.13406 -0.3197 -0.578202 160 32 240
2.12642 -0.318555 -0.576131 160 32 240
2.12177 -0.348213 -0.576131 160 32 240
2.13702 -0.350716 -0.580272 160 32 240
2.14713 -0.383235 -0.584413 160 32 240
2.16234 -0.385951 -0.588555 160 32 240
2.16054 -0.416836 -0.58959 160 32 240
2.17192 -0.419032 -0.592696 160 32 240
2.17917 -0.451682 -0.596319 160 32 240
2.20944 -0.457955 -0.604601 160 32 240
2.22358 -0.493362 -0.610295 160 32 240
2.24432 -0.497965 -0.615989 160 32 240
2.27673 -0.538195 -0.62686 160 32 240
3.61907 -0.855512 -0.996453 160 32 240
2.15232 -0.200802 0.037732 160 32 240
2.14038 -0.199687 0.037523 160 32 240
2.14136 -0.229979 0.037592 160 32 240
2.14533 -0.230406 0.037662 160 32 240
2.14195 -0.259964 0.037662 160 32 240
2.13004 -0.258518 0.037453 160 32 240
2.13019 -0.28877 0.037523 160 32 240
2.13415 -0.289307 0.037592 160 32 240
2.09826 -0.314336 0.037034 160 32 240
2.14177 -0.320854 0.037802 160 32 240
2.13314 -0.350079 0.037732 160 32 240
2.13708 -0.350727 0.037802 160 32 240
2.13985 -0.381936 0.037942 160 32 240
2.15166 -0.384044 0.038151 160 32 240
2.15787 -0.416322 0.03836 160 32 240
2.1618 -0.417079 0.03843 160 32 240
2.16368 -0.448469 0.03857 160 32 240
2.18717 -0.45334 0.038989 160 32 240
2.19625 -0.487298 0.039268 160 32 240
2.22163 -0.492929 0.039722 160 32 240
2.2224 -0.525354 0.039861 160 32 240
2.26132 -0.534554 0.040559 160 32 240
2.29825 -0.57728 0.041362 160 32 240
2.14599 -0.200211 -0.497592 160 32 240
2.13435 -0.199124 -0.494892 160 32 240
2.12555 -0.228281 -0.493543 160 32 240
2.12748 -0.228489 -0.493993 160 32 240
2.12413 -0.2578 -0.493993 160 32 240
2.13187 -0.258739 -0.495792 160 32 240
2.12032 -0.287433 -0.493993 160 32 240
2.12419 -0.287956 -0.494892 160 32 240
2.12767 -0.318741 -0.496692 160 32 240
2.13923 -0.320474 -0.499391 160 32 240
2.14032 -0.351257 -0.500741 160 32 240
2.13839 -0.350942 -0.500291 160 32 240
2.13329 -0.380764 -0.500291 160 32 240
2.14671 -0.383161 -0.50344 160 32 240
2.15646 -0.41605 -0.50704 160 32 240
2.16986 -0.418634 -0.510189 160 32 240
2.1696 -0.449698 -0.511539 160 32 240
2.1925 -0.454444 -0.516937 160 32 240
2.20877 -0.490077 -0.522336 160 32 240
2.24111 -0.497253 -0.529985 160 32 240
2.27197 -0.537072 -0.538983 160 32 240
2.1676 -0.202227 0.114092 160 32 240
2.1676 -0.202227 0.114092 160 32 240
2.15265 -0.231192 0.113464 160 32 240
2.14073 -0.229912 0.112836 160 32 240
2.14529 -0.260369 0.113255 160 32 240
2.15521 -0.261572 0.113778 160 32 240
2.15728 -0.292443 0.114092 160 32 240
2.14541 -0.290833 0.113464 160 32 240
2.10953 -0.316025 0.11179 160 32 240
2.15101 -0.322239 0.113988 160 32 240
2.15222 -0.35321 0.114302 160 32 240
2.1601 -0.354504 0.11472 160 32 240
2.15101 -0.383927 0.114511 160 32 240
2.14707 -0.383226 0.114302 160 32 240
2.16309 -0.417328 0.115453 160 32 240
2.17485 -0.419598 0.116081 160 32 240
2.18059 -0.451977 0.116709 160 32 240
2.18451 -0.452787 0.116919 160 32 240
2.19357 -0.486705 0.117756 160 32 240
2.21892 -0.492329 0.119117 160 32 240
2.23913 -0.529308 0.120582 160 32 240
2.27217 -0.537119 0.122361 160 32 240
2.29157 -0.575603 0.123827 160 32 240
2.14633 -0.200243 -0.419017 160 32 240
2.14633 -0.200243 -0.419017 160 32 240
2.14333 -0.230191 -0.419017 160 32 240
2.13747 -0.229562 -0.417872 160 32 240
2.13215 -0.258774 -0.41749 160 32 240
2.138 -0.259484 -0.418635 160 32 240
2.14001 -0.290101 -0.41978 160 32 240
2.1439 -0.290628 -0.420543 160 32 240
2.13186 -0.31937 -0.419017 160 32 240
2.13769 -0.320243 -0.420161 160 32 240
2.13688 -0.350694 -0.420925 160 32 240
2.15044 -0.35292 -0.423596 160 32 240
2.15497 -0.384635 -0.425504 160 32 240
2.1569 -0.38498 -0.425886 160 32 240
2.17252 -0.419149 -0.430083 160 32 240
2.18216 -0.421008 -0.431992 160 32 240
2.19537 -0.45504 -0.435808 160 32 240
2.20691 -0.45743 -0.438097 160 32 240
2.21947 -0.492452 -0.441914 160 32 240
2.24631 -0.498405 -0.447256 160 32 240
2.28507 -0.540169 -0.456415 160 32 240
2.33475 -0.551912 -0.466337 160 32 240
2.15835 -0.201364 0.189651 160 32 240
2.15835 -0.201364 0.189651 160 32 240
2.15731 -0.231692 0.189825 160 32 240
2.16127 -0.232118 0.190174 160 32 240
2.14599 -0.260454 0.189128 160 32 240
2.14006 -0.259734 0.188605 160 32 240
2.14807 -0.291194 0.189651 160 32 240
2.1382 -0.289856 0.188779 160 32 240
2.1103 -0.31614 0.186688 160 32 240
2.14577 -0.321453 0.189825 160 32 240
2.14107 -0.351381 0.189825 160 32 240
2.1509 -0.352994 0.190697 160 32 240
2.15557 -0.384742 0.191568 160 32 240
2.16734 -0.386842 0.192614 160 32 240
2.15586 -0.415933 0.192091 160 32 240
2.16564 -0.41782 0.192963 160 32 240
2.16552 -0.448853 0.193486 160 32 240
2.18308 -0.452492 0.195055 160 32 240
2.20962 -0.490265 0.198018 160 32 240
2.21545 -0.49156 0.198541 160 32 240
2.22785 -0.526643 0.200284 160 32 240
2.26082 -0.534435 0.203247 160 32 240
2.30144 -0.578083 0.207605 160 32 240
2.13205 -0.19891 -0.33915 160 32 240
2.12025 -0.197809 -0.337273 160 32 240
2.12514 -0.228237 -0.338524 160 32 240
2.13299 -0.229081 -0.339776 160 32 240
2.11591 -0.256802 -0.337586 160 32 240
2.08061 -0.252518 -0.331954 160 32 240
2.06905 -0.280482 -0.330702 160 32 240
2.07296 -0.281013 -0.331328 160 32 240
2.11377 -0.316659 -0.338524 160 32 240
2.13917 -0.320464 -0.342591 160 32 240
2.12669 -0.349021 -0.34134 160 32 240
2.13643 -0.35062 -0.342904 160 32 240
2.13522 -0.381109 -0.34353 160 32 240
2.15078 -0.383886 -0.346033 160 32 240
2.1646 -0.41762 -0.349162 160 32 240
2.16654 -0.417995 -0.349475 160 32 240
2.16638 -0.449029 -0.350413 160 32 240
2.19345 -0.454642 -0.354793 160 32 240
2.21196 -0.490786 -0.358861 160 32 240
2.23703 -0.496348 -0.362928 160 32 240
2.26074 -0.534415 -0.367934 160 32 240
2.30687 -0.545322 -0.375443 160 32 240
2.17021 -0.20247 0.267625 160 32 240
2.15835 -0.201364 0.266163 160 32 240
2.14941 -0.230843 0.265431 160 32 240
2.15335 -0.231267 0.265919 160 32 240
2.14996 -0.260935 0.265919 160 32 240
2.1539 -0.261413 0.266406 160 32 240
2.14217 -0.290394 0.265431 160 32 240
2.13627 -0.289595 0.2647 160 32 240
2.11828 -0.317335 0.262994 160 32 240
2.13398 -0.319687 0.264944 160 32 240
2.15086 -0.352988 0.267625 160 32 240
2.16457 -0.355238 0.269331 160 32 240
2.14572 -0.382984 0.267625 160 32 240
2.15745 -0.385077 0.269088 160 32 240
2.1616 -0.417042 0.270306 160 32 240
2.1733 -0.419298 0.271769 160 32 240
2.1712 -0.450029 0.272256 160 32 240
2.17703 -0.451238 0.272987 160 32 240
2.19959 -0.48804 0.276643 160 32 240
2.22866 -0.494489 0.280299 160 32 240
2.24481 -0.53065 0.283224 160 32 240
2.25833 -0.533847 0.284931 160 32 240
2.28531 -0.574031 0.289318 160 32 240
2.14649 -0.200257 -0.2647 160 32 240
2.15044 -0.200626 -0.265188 160 32 240
2.13362 -0.229148 -0.263482 160 32 240
2.12375 -0.228088 -0.262263 160 32 240
2.08099 -0.252564 -0.257388 160 32 240
2.08887 -0.253521 -0.258363 160 32 240
2.09299 -0.283728 -0.259338 160 32 240
2.08709 -0.282928 -0.258607 160 32 240
2.07705 -0.311158 -0.257876 160 32 240
2.14576 -0.321452 -0.266406 160 32 240
2.14302 -0.351702 -0.26665 160 32 240
2.15086 -0.352988 -0.267625 160 32 240
2.13986 -0.381937 -0.266894 160 32 240
2.14377 -0.382635 -0.267381 160 32 240
2.15186 -0.415162 -0.269088 160 32 240
2.16745 -0.41817 -0.271037 160 32 240
2.17897 -0.451641 -0.273231 160 32 240
2.19258 -0.454461 -0.274937 160 32 240
2.2054 -0.48933 -0.277375 160 32 240
2.23447 -0.495779 -0.281031 160 32 240
2.26606 -0.535674 -0.285905 160 32 240
2.30276 -0.544351 -0.290537 160 32 240
2.15172 -0.200745 0.342279 160 32 240
2.15565 -0.201112 0.342904 160 32 240
2.14478 -0.230346 0.341653 160 32 240
2.13692 -0.229503 0.340401 160 32 240
2.12963 -0.258468 0.339776 160 32 240
2.12571 -0.257992 0.33915 160 32 240
2.13365 -0.289239 0.341027 160 32 240
2.13756 -0.289769 0.341653 160 32 240
2.10791 -0.315781 0.337586 160 32 240
2.1001 -0.314611 0.336334 160 32 240
2.12279 -0.348381 0.340714 160 32 240
2.13643 -0.35062 0.342904 160 32 240
2.14105 -0.382151 0.344469 160 32 240
2.13522 -0.381109 0.34353 160 32 240
2.13939 -0.412756 0.345094 160 32 240
2.15103 -0.415001 0.346972 160 32 240
2.16444 -0.448628 0.3501 160 32 240
2.17991 -0.451836 0.352603 160 32 240
2.17918 -0.483512 0.353542 160 32 240
2.19461 -0.486935 0.356045 160 32 240
2.2146 -0.523509 0.360425 160 32 240
2.2492 -0.531689 0.366057 160 32 240
2.27988 -0.572665 0.372314 160 32 240
2.34693 -0.589508 0.383264 160 32 240
2.15041 -0.200623 -0.188954 160 32 240
2.14644 -0.200253 -0.188605 160 32 240
2.14146 -0.22999 -0.188431 160 32 240
2.15929 -0.231905 -0.19 160 32 240
2.12622 -0.258054 -0.187385 160 32 240
2.13215 -0.258774 -0.187908 160 32 240
2.1303 -0.288786 -0.188082 160 32 240
2.12241 -0.287715 -0.187385 160 32 240
2.15168 -0.322338 -0.190348 160 32 240
2.14774 -0.321748 -0.19 160 32 240
2.12534 -0.3488 -0.188431 160 32 240
2.1509 -0.352994 -0.190697 160 32 240
2.15753 -0.385092 -0.191743 160 32 240
2.16538 -0.386492 -0.19244 160 32 240
2.16955 -0.418575 -0.193311 160 32 240
2.16368 -0.417443 -0.192788 160 32 240
2.17333 -0.45047 -0.194183 160 32 240
2.19284 -0.454514 -0.195926 160 32 240
2.21545 -0.49156 -0.198541 160 32 240
2.23101 -0.495012 -0.199935 160 32 240
2.25112 -0.532143 -0.202376 160 32 240
2.2899 -0.54131 -0.205862 160 32 240
2.14633 -0.200243 0.419017 160 32 240
2.13851 -0.199513 0.41749 160 32 240
2.13552 -0.229352 0.41749 160 32 240
2.14918 -0.23082 0.420161 160 32 240
2.1341 -0.259011 0.417872 160 32 240
2.1302 -0.258538 0.417108 160 32 240
2.11472 -0.286672 0.414819 160 32 240
2.12055 -0.287464 0.415964 160 32 240
2.1241 -0.318207 0.41749 160 32 240
2.13495 -0.350376 0.420543 160 32 240
2.13882 -0.351012 0.421306 160 32 240
2.12598 -0.379461 0.41978 160 32 240
2.15497 -0.384635 0.425504 160 32 240
2.16096 -0.416917 0.427794 160 32 240
2.15903 -0.416545 0.427412 160 32 240
2.15693 -0.447071 0.428175 160 32 240
2.17231 -0.450258 0.431228 160 32 240
2.19072 -0.486073 0.436189 160 32 240
2.21564 -0.491601 0.44115 160 32 240
2.2182 -0.524361 0.443058 160 32 240
2.23922 -0.529329 0.447256 160 32 240
2.26208 -0.568195 0.453362 160 32 240
2.33063 -0.585413 0.4671 160 32 240
2.16561 -0.202041 -0.113988 160 32 240
2.15368 -0.200928 -0.11336 160 32 240
2.14868 -0.230765 -0.113255 160 32 240
2.15265 -0.231192 -0.113464 160 32 240
2.14727 -0.260609 -0.11336 160 32 240
2.15521 -0.261572 -0.113778 160 32 240
2.14145 -0.290296 -0.113255 160 32 240
2.1177 -0.287077 -0.111999 160 32 240
2.11941 -0.317504 -0.112313 160 32 240
2.15101 -0.322239 -0.113988 160 32 240
2.16207 -0.354828 -0.114825 160 32 240
2.15024 -0.352887 -0.114197 160 32 240
2.14904 -0.383576 -0.114406 160 32 240
2.16477 -0.386384 -0.115244 160 32 240
2.17093 -0.418841 -0.115872 160 32 240
2.18466 -0.42149 -0.116605 160 32 240
2.19233 -0.454409 -0.117337 160 32 240
2.19233 -0.454409 -0.117337 160 32 240
2.21697 -0.491896 -0.119012 160 32 240
2.24427 -0.497953 -0.120477 160 32 240
2.27023 -0.53666 -0.122257 160 32 240
2.30716 -0.54539 -0.124246 160 32 240
2.16539 -0.202021 0.502091 160 32 240
2.16151 -0.201659 0.501191 160 32 240
2.13911 -0.229738 0.496692 160 32 240
2.13911 -0.229738 0.496692 160 32 240
2.13574 -0.259209 0.496692 160 32 240
2.14348 -0.260148 0.498492 160 32 240
2.13963 -0.29005 0.498492 160 32 240
2.13191 -0.289003 0.496692 160 32 240
2.13923 -0.320474 0.499391 160 32 240
2.10839 -0.315854 0.492193 160 32 240
2.13647 -0.350626 0.499841 160 32 240
2.14609 -0.352204 0.502091 160 32 240
2.13904 -0.381791 0.501641 160 32 240
2.13904 -0.381791 0.501641 160 32 240
2.14881 -0.414573 0.50524 160 32 240
2.16794 -0.418265 0.509739 160 32 240
2.17342 -0.450489 0.512438 160 32 240
2.17533 -0.450885 0.512888 160 32 240
2.18784 -0.485434 0.517387 160 32 240
2.20497 -0.489233 0.521437 160 32 240
2.21887 -0.524519 0.526385 160 32 240
2.24922 -0.531692 0.533584 160 32 240
2.26614 -0.569216 0.539433 160 32 240
2.32852 -0.584883 0.554279 160 32 240
2.15431 -0.200988 -0.037767 160 32 240
2.15631 -0.201173 -0.037802 160 32 240
2.15528 -0.231474 -0.037837 160 32 240
2.14533 -0.230406 -0.037662 160 32 240
2.13401 -0.259 -0.037523 160 32 240
2.14592 -0.260445 -0.037732 160 32 240
2.14604 -0.290919 -0.037802 160 32 240
2.13019 -0.28877 -0.037523 160 32 240
2.11211 -0.31641 -0.037278 160 32 240
2.13386 -0.319669 -0.037662 160 32 240
2.16076 -0.354613 -0.038221 160 32 240
2.15484 -0.353641 -0.038116 160 32 240
2.14969 -0.383693 -0.038116 160 32 240
2.16741 -0.386855 -0.03843 160 32 240
2.17358 -0.419352 -0.03864 160 32 240
2.1834 -0.421246 -0.038814 160 32 240
2.18717 -0.45334 -0.038989 160 32 240
2.20675 -0.457398 -0.039338 160 32 240
2.20406 -0.489031 -0.039408 160 32 240
2.22748 -0.494229 -0.039826 160 32 240
2.25354 -0.532714 -0.04042 160 32 240
2.30414 -0.544675 -0.041327 160 32 240
2.16394 -0.201885 0.582343 160 32 240
2.16778 -0.202244 0.583378 160 32 240
2.16475 -0.232491 0.583378 160 32 240
2.16859 -0.232904 0.584413 160 32 240
2.14983 -0.260919 0.580272 160 32 240
2.1364 -0.25929 0.576649 160 32 240
2.15172 -0.291689 0.581825 160 32 240
2.14789 -0.29117 0.58079 160 32 240
2.14744 -0.321703 0.581825 160 32 240
2.10541 -0.315406 0.570437 160 32 240
2.14083 -0.351342 0.581308 160 32 240
2.15227 -0.353219 0.584413 160 32 240
2.15474 -0.384593 0.586484 160 32 240
2.16995 -0.387308 0.590625 160 32 240
2.16054 -0.416836 0.58959 160 32 240
2.16433 -0.417568 0.590625 160 32 240
2.17539 -0.450898 0.595284 160 32 240
2.18863 -0.453642 0.598907 160 32 240
2.19906 -0.487922 0.603566 160 32 240
2.20849 -0.490015 0.606154 160 32 240
2.2222 -0.525307 0.611848 160 32 240
2.25229 -0.532418 0.62013 160 32 240
2.27461 -0.571342 0.628413 160 32 240
2.33457 -0.586403 0.644977 160 32 240
2.23066 -0.052958 -0.597872 160 32 240
2.21328 -0.052545 -0.593213 160 32 240
2.20655 -0.082839 -0.59166 160 32 240
2.20462 -0.082766 -0.591143 160 32 240
2.17238 -0.111949 -0.58286 160 32 240
2.15695 -0.111153 -0.578719 160 32 240
2.15328 -0.140756 -0.578202 160 32 240
2.15136 -0.14063 -0.577684 160 32 240
2.15111 -0.170807 -0.578202 160 32 240
2.1434 -0.170195 -0.576131 160 32 240
2.38561 0.010409 0.041641 160 32 240
2.33754 -0.022439 0.040804 160 32 240
2.30754 -0.022151 0.04028 160 32 240
2.26902 -0.053869 0.039617 160 32 240
2.24303 -0.053252 0.039163 160 32 240
2.22609 -0.083572 0.038884 160 32 240
2.2201 -0.083347 0.038779 160 32 240
2.21073 -0.113925 0.03864 160 32 240
2.18477 -0.112587 0.038186 160 32 240
2.17303 -0.142047 0.038011 160 32 240
2.17303 -0.142047 0.038011 160 32 240
2.17084 -0.172373 0.038011 160 32 240
2.16286 -0.17174 0.037872 160 32 240
2.22146 -0.021325 -0.512888 160 32 240
2.23068 -0.052958 -0.515138 160 32 240
2.19951 -0.052218 -0.507939 160 32 240
2.18495 -0.082028 -0.50479 160 32 240
2.17911 -0.081808 -0.50344 160 32 240
2.17191 -0.111925 -0.502091 160 32 240
2.17386 -0.112025 -0.502541 160 32 240
2.15266 -0.140716 -0.498042 160 32 240
2.14877 -0.140461 -0.497142 160 32 240
2.14466 -0.170295 -0.496692 160 32 240
2.14077 -0.169986 -0.495792 160 32 240
2.3867 0.010414 0.125083 160 32 240
2.33668 -0.022431 0.122466 160 32 240
2.31072 -0.022182 0.121105 160 32 240
2.28422 -0.05423 0.119745 160 32 240
2.26425 -0.053756 0.118698 160 32 240
2.24134 -0.084145 0.117547 160 32 240
2.22139 -0.083396 0.1165 160 32 240
2.21402 -0.114095 0.116186 160 32 240
2.20804 -0.113786 0.115872 160 32 240
2.19031 -0.143177 0.115034 160 32 240
2.18234 -0.142656 0.114616 160 32 240
2.17018 -0.172322 0.114092 160 32 240
2.16222 -0.171689 0.113674 160 32 240
2.4458 0.045254 -0.475496 160 32 240
2.36766 0.010331 -0.460231 160 32 240
2.32447 0.010142 -0.451836 160 32 240
2.28709 -0.021955 -0.444585 160 32 240
2.25371 -0.021635 -0.438097 160 32 240
2.24533 -0.053306 -0.436571 160 32 240
2.22963 -0.052933 -0.433518 160 32 240
2.22084 -0.083375 -0.431992 160 32 240
2.20318 -0.082712 -0.428557 160 32 240
2.18613 -0.112657 -0.425504 160 32 240
2.18417 -0.112556 -0.425122 160 32 240
2.18241 -0.14266 -0.425122 160 32 240
2.16869 -0.141764 -0.422451 160 32 240
2.15672 -0.171252 -0.420543 160 32 240
2.14693 -0.170475 -0.418635 160 32 240
2.36486 -0.022702 0.206908 160 32 240
2.30907 -0.022166 0.202027 160 32 240
2.27865 -0.054097 0.199412 160 32 240
2.25674 -0.053577 0.197495 160 32 240
2.24981 -0.084463 0.196972 160 32 240
2.2319 -0.08379 0.195403 160 32 240
2.22056 -0.114432 0.194532 160 32 240
2.20464 -0.113611 0.193137 160 32 240
2.18895 -0.143088 0.191917 160 32 240
2.19094 -0.143218 0.192091 160 32 240
2.17879 -0.173005 0.19122 160 32 240
2.16688 -0.172059 0.190174 160 32 240
2.35463 0.010274 -0.37294 160 32 240
2.31314 0.010093 -0.36637 160 32 240
2.28146 -0.021901 -0.361364 160 32 240
2.25775 -0.021674 -0.357609 160 32 240
2.2276 -0.052885 -0.352916 160 32 240
2.20587 -0.05237 -0.349475 160 32 240
2.19705 -0.082482 -0.348223 160 32 240
2.1852 -0.082037 -0.346346 160 32 240
2.1799 -0.112336 -0.34572 160 32 240
2.16214 -0.111421 -0.342904 160 32 240
2.15646 -0.140964 -0.342279 160 32 240
2.14463 -0.140191 -0.340401 160 32 240
2.15034 -0.170746 -0.341653 160 32 240
2.15034 -0.170746 -0.341653 160 32 240
2.37406 -0.02279 0.291511 160 32 240
2.31848 -0.022257 0.284687 160 32 240
2.29809 -0.054559 0.282249 160 32 240
2.26634 -0.053805 0.27835 160 32 240
2.24356 -0.084228 0.275668 160 32 240
2.22769 -0.083632 0.273719 160 32 240
2.22631 -0.114728 0.273719 160 32 240
2.21441 -0.114115 0.272256 160 32 240
2.19084 -0.143211 0.269575 160 32 240
2.18093 -0.142564 0.268356 160 32 240
2.17675 -0.172843 0.268113 160 32 240
2.17279 -0.172529 0.267625 160 32 240
2.38804 0.01042 -0.293218 160 32 240
2.32452 0.010143 -0.285418 160 32 240
2.28275 -0.021914 -0.280299 160 32 240
2.26092 -0.021704 -0.277618 160 32 240
2.24451 -0.053287 -0.275668 160 32 240
2.22863 -0.05291 -0.273719 160 32 240
2.20984 -0.082962 -0.271525 160 32 240
2.19397 -0.082366 -0.269575 160 32 240
2.19062 -0.112889 -0.269331 160 32 240
2.18467 -0.112582 -0.2686 160 32 240
2.16905 -0.141787 -0.266894 160 32 240
2.15518 -0.14088 -0.265188 160 32 240
2.14509 -0.170329 -0.264213 160 32 240
2.14509 -0.170329 -0.264213 160 32 240
2.34664 -0.022527 0.371688 160 32 240
2.31306 -0.022204 0.36637 160 32 240
2.27894 -0.054104 0.361051 160 32 240
2.25722 -0.053589 0.357609 160 32 240
2.24245 -0.084186 0.355419 160 32 240
2.21679 -0.083223 0.351352 160 32 240
2.19963 -0.113353 0.348849 160 32 240
2.18779 -0.112743 0.346972 160 32 240
2.18209 -0.142639 0.346346 160 32 240
2.1742 -0.142124 0.345094 160 32 240
2.16019 -0.171528 0.343217 160 32 240
2.15034 -0.170746 0.341653 160 32 240
2.38885 0.010423 -0.208999 160 32 240
2.33705 0.010197 -0.204467 160 32 240
2.29911 -0.022071 -0.201155 160 32 240
2.26524 -0.021745 -0.198192 160 32 240
2.2428 -0.053246 -0.196275 160 32 240
2.22089 -0.052726 -0.194357 160 32 240
2.21995 -0.083342 -0.194357 160 32 240
2.21398 -0.083118 -0.193834 160 32 240
2.19071 -0.112894 -0.191917 160 32 240
2.17878 -0.112278 -0.190871 160 32 240
2.17304 -0.142048 -0.190522 160 32 240
2.17503 -0.142178 -0.190697 160 32 240
2.17284 -0.172532 -0.190697 160 32 240
2.14304 -0.170167 -0.188082 160 32 240
2.36365 -0.02269 0.459468 160 32 240
2.32831 -0.022351 0.452599 160 32 240
2.28262 -0.054192 0.443822 160 32 240
2.25318 -0.053493 0.438097 160 32 240
2.24242 -0.084185 0.436189 160 32 240
2.22869 -0.08367 0.433518 160 32 240
2.22338 -0.114577 0.432755 160 32 240
2.20181 -0.113465 0.428557 160 32 240
2.18045 -0.142532 0.424741 160 32 240
2.17653 -0.142276 0.423978 160 32 240
2.17433 -0.172651 0.423978 160 32 240
2.17237 -0.172496 0.423596 160 32 240
2.40468 0.010492 -0.126025 160 32 240
2.33677 0.010196 -0.122466 160 32 240
2.31272 -0.022201 -0.12121 160 32 240
2.29874 -0.022067 -0.120477 160 32 240
2.27024 -0.053898 -0.119012 160 32 240
2.24828 -0.053376 -0.117861 160 32 240
2.23336 -0.083845 -0.117128 160 32 240
2.20941 -0.082946 -0.115872 160 32 240
2.20804 -0.113786 -0.115872 160 32 240
2.20006 -0.113375 -0.115453 160 32 240
2.18035 -0.142525 -0.114511 160 32 240
2.17038 -0.141874 -0.113988 160 32 240
2.16421 -0.171847 -0.113778 160 32 240
2.17217 -0.17248 -0.114197 160 32 240
4.75216 0.087927 1.09731 160 32 240
4.72099 0.087351 1.09011 160 32 240
4.7276 0.020628 1.09146 160 32 240
4.71006 0.020552 1.08741 160 32 240
2.35787 -0.022635 0.544382 160 32 240
2.32474 -0.022317 0.536733 160 32 240
2.30081 -0.054623 0.531334 160 32 240
2.27549 -0.054022 0.525486 160 32 240
2.257 -0.084733 0.521437 160 32 240
2.2239 -0.08349 0.513788 160 32 240
2.21473 -0.114131 0.511989 160 32 240
2.21083 -0.11393 0.511089 160 32 240
2.19544 -0.143512 0.507939 160 32 240
2.17988 -0.142495 0.50434 160 32 240
2.16991 -0.1723 0.502541 160 32 240
2.16991 -0.1723 0.502541 160 32 240
2.39161 0.010435 -0.041746 160 32 240
2.36962 0.010339 -0.041362 160 32 240
2.31154 -0.02219 -0.04035 160 32 240
2.28755 -0.02196 -0.039931 160 32 240
2.27301 -0.053963 -0.039687 160 32 240
2.24703 -0.053346 -0.039233 160 32 240
2.24208 -0.084173 -0.039163 160 32 240
2.2141 -0.083122 -0.038675 160 32 240
2.20873 -0.113822 -0.038605 160 32 240
2.18477 -0.112587 -0.038186 160 32 240
2.19498 -0.143482 -0.038395 160 32 240
2.19498 -0.143482 -0.038395 160 32 240
2.16685 -0.172057 -0.037942 160 32 240
2.15887 -0.171424 -0.037802 160 32 240
2.41857 -0.023217 0.648083 160 32 240
2.35482 -0.022605 0.631001 160 32 240
2.30791 -0.054792 0.618578 160 32 240
2.27894 -0.054104 0.610813 160 32 240
2.26254 -0.084941 0.606672 160 32 240
2.25095 -0.084506 0.603566 160 32 240
2.23026 -0.114932 0.59839 160 32 240
2.21483 -0.114136 0.594249 160 32 240
2.20533 -0.144159 0.592178 160 32 240
2.19762 -0.143654 0.590107 160 32 240
2.19348 -0.174171 0.58959 160 32 240
2.17614 -0.172795 0.584931 160 32 240
3.89271 0.956863 -1.0741 160 32 240
3.89834 0.958246 -1.07565 160 32 240
3.90758 0.902854 -1.07462 160 32 240
3.90193 0.901549 -1.07306 160 32 240
3.92532 0.850118 -1.07617 160 32 240
3.93476 0.852163 -1.07876 160 32 240
3.95006 0.797907 -1.07979 160 32 240
3.96461 0.74339 -1.08083 160 32 240
3.9874 0.747662 -1.08704 160 32 240
4.03349 0.698881 -1.09687 160 32 240
4.20861 0.729224 -1.1445 160 32 240
4.4093 0.699942 -1.19626 160 32 240
4.52759 0.71872 -1.22836 160 32 240
4.75503 0.687753 -1.28737 160 32 240
5.89456 0.85257 -1.59588 160 32 240
5.91738 0.771685 -1.59898 160 32 240
5.90972 0.770686 -1.59691 160 32 240
5.9235 0.690612 -1.59795 160 32 240
5.9331 0.69173 -1.60054 160 32 240
5.96161 0.608712 -1.60571 160 32 240
5.97506 0.610086 -1.60934 160 32 240
6.02505 0.533482 -1.62073 160 32 240
3.94567 0.96988 -0.938046 160 32 240
3.95513 0.972205 -0.940295 160 32 240
3.97402 0.918204 -0.941645 160 32 240
3.97781 0.919082 -0.942545 160 32 240
3.98439 0.862912 -0.941195 160 32 240
3.97106 0.860025 -0.938046 160 32 240
3.99796 0.807583 -0.941645 160 32 240
3.99796 0.807583 -0.941645 160 32 240
4.028 0.755276 -0.946144 160 32 240
4.01843 0.75348 -0.943895 160 32 240
4.06876 0.70499 -0.953343 160 32 240
4.111 0.71231 -0.96324 160 32 240
4.32082 0.685897 -1.01003 160 32 240
4.72115 0.749445 -1.10361 160 32 240
4.6751 0.676191 -1.09056 160 32 240
5.42805 0.707871 -1.26377 160 32 240
6.52113 0.760289 -1.51572 0 0 255
6.46694 0.75397 -1.50312 0 0 255
6.45768 0.659363 -1.49862 0 0 255
6.46543 0.660155 -1.50042 0 0 255
6.84254 0.605866 -1.5859 0 0 255
6.92989 0.6136 -1.60615 0 0 255
3.99031 0.980852 -0.798726 160 32 240
3.99221 0.981321 -0.799108 160 32 240
3.99788 0.923717 -0.797582 160 32 240
4.02274 0.929463 -0.802543 160 32 240
4.03901 0.874741 -0.803306 160 32 240
